# .PCD v0.7 - Point Cloud Data file format
VERSION 0.7
FIELDS x y z intensity
SIZE 4 4 4 4
TYPE F F F F
COUNT 1 1 1 1
WIDTH 1966
HEIGHT 1
VIEWPOINT 0 0 0 1 0 0 0
POINTS 1966
DATA ascii
120.81526 7.7894402 4 0
122.81526 7.7894402 11 0
124.81526 7.7894402 8 0
126.81526 7.7894402 4 0
128.81526 7.7894402 12 0
132.81526 7.7894402 2 0
134.81526 7.7894402 1 0
136.81526 7.7894402 2 0
138.81526 7.7894402 8 0
140.81526 7.7894402 13 0
142.81526 7.7894402 9 0
144.81526 7.7894402 1 0
146.81526 7.7894402 21 0
148.81526 7.7894402 1 0
152.81526 7.7894402 1 0
156.81526 7.7894402 7 0
158.81526 7.7894402 9 0
160.81526 7.7894402 8 0
162.81526 7.7894402 3 0
164.81526 7.7894402 21 0
168.81526 7.7894402 0 0
170.81526 7.7894402 1 0
172.81526 7.7894402 3 0
174.81526 7.7894402 4 0
176.81526 7.7894402 2 0
178.81526 7.7894402 14 0
180.81526 7.7894402 3 0
182.81526 7.7894402 9 0
184.81526 7.7894402 12 0
188.81526 7.7894402 1 0
190.81526 7.7894402 1 0
194.81526 7.7894402 4 0
-167.18474 9.7894402 6 0
-165.18474 9.7894402 5 0
-163.18474 9.7894402 5 0
-161.18474 9.7894402 12 0
-157.18474 9.7894402 0 0
-153.18474 9.7894402 3 0
-151.18474 9.7894402 7 0
-149.18474 9.7894402 6 0
-147.18474 9.7894402 5 0
-145.18474 9.7894402 2 0
-143.18474 9.7894402 14 0
-139.18474 9.7894402 0 0
-135.18474 9.7894402 1 0
-133.18474 9.7894402 4 0
-129.18474 9.7894402 5 0
-127.18474 9.7894402 2 0
-125.18474 9.7894402 10 0
-123.18474 9.7894402 2 0
-119.18474 9.7894402 0 0
-115.18474 9.7894402 2 0
-111.18474 9.7894402 7 0
-109.18474 9.7894402 5 0
-107.18474 9.7894402 11 0
-105.18474 9.7894402 6 0
-103.18474 9.7894402 4 0
-99.184738 9.7894402 1 0
-95.184738 9.7894402 2 0
-93.184738 9.7894402 3 0
-91.184738 9.7894402 3 0
-89.184738 9.7894402 3 0
-87.184738 9.7894402 13 0
-85.184738 9.7894402 5 0
-81.184738 9.7894402 0 0
-77.184738 9.7894402 2 0
-75.184738 9.7894402 4 0
-73.184738 9.7894402 8 0
-71.184738 9.7894402 6 0
-69.184738 9.7894402 14 0
-67.184738 9.7894402 2 0
-63.184738 9.7894402 2 0
-61.184738 9.7894402 2 0
-59.184738 9.7894402 2 0
-57.184738 9.7894402 1 0
-55.184738 9.7894402 9 0
-53.184738 9.7894402 6 0
-51.184738 9.7894402 19 0
-49.184738 9.7894402 4 0
-47.184738 9.7894402 1 0
-43.184738 9.7894402 3 0
-41.184738 9.7894402 2 0
-39.184738 9.7894402 2 0
-37.184738 9.7894402 12 0
-35.184738 9.7894402 4 0
-33.184738 9.7894402 29 0
-31.184738 9.7894402 6 0
-27.184738 9.7894402 0 0
-25.184738 9.7894402 4 0
-21.184738 9.7894402 3 0
-19.184738 9.7894402 6 0
-17.184738 9.7894402 9 0
-15.184738 9.7894402 23 0
-13.184738 9.7894402 5 0
-9.1847382 9.7894402 2 0
-7.1847382 9.7894402 2 0
-3.1847382 9.7894402 0 0
-1.1847382 9.7894402 7 0
0.81526184 9.7894402 15 0
2.8152618 9.7894402 18 0
4.8152618 9.7894402 20 0
8.8152618 9.7894402 1 0
10.815262 9.7894402 1 0
12.815262 9.7894402 1 0
14.815262 9.7894402 1 0
16.815262 9.7894402 8 0
18.815262 9.7894402 12 0
20.815262 9.7894402 12 0
22.815262 9.7894402 21 0
24.815262 9.7894402 2 0
26.815262 9.7894402 1 0
28.815262 9.7894402 4 0
32.815262 9.7894402 0 0
34.815262 9.7894402 2 0
36.815262 9.7894402 14 0
38.815262 9.7894402 32 0
40.815262 9.7894402 24 0
42.815262 9.7894402 2 0
44.815262 9.7894402 1 0
46.815262 9.7894402 4 0
48.815262 9.7894402 4 0
52.815262 9.7894402 8 0
54.815262 9.7894402 15 0
56.815262 9.7894402 20 0
58.815262 9.7894402 14 0
60.815262 9.7894402 3 0
64.815262 9.7894402 1 0
66.815262 9.7894402 5 0
68.815262 9.7894402 1 0
70.815262 9.7894402 5 0
72.815262 9.7894402 15 0
74.815262 9.7894402 16 0
76.815262 9.7894402 18 0
78.815262 9.7894402 4 0
80.815262 9.7894402 1 0
84.815262 9.7894402 2 0
86.815262 9.7894402 3 0
88.815262 9.7894402 3 0
90.815262 9.7894402 13 0
92.815262 9.7894402 14 0
94.815262 9.7894402 17 0
96.815262 9.7894402 25 0
98.815262 9.7894402 3 0
102.81526 9.7894402 3 0
104.81526 9.7894402 3 0
106.81526 9.7894402 1 0
108.81526 9.7894402 20 0
110.81526 9.7894402 14 0
112.81526 9.7894402 19 0
114.81526 9.7894402 27 0
116.81526 9.7894402 3 0
120.81526 9.7894402 1 0
122.81526 9.7894402 2 0
124.81526 9.7894402 4 0
126.81526 9.7894402 10 0
128.81526 9.7894402 22 0
130.81526 9.7894402 18 0
132.81526 9.7894402 40 0
134.81526 9.7894402 2 0
138.81526 9.7894402 1 0
140.81526 9.7894402 7 0
142.81526 9.7894402 3 0
144.81526 9.7894402 3 0
146.81526 9.7894402 10 0
148.81526 9.7894402 9 0
150.81526 9.7894402 34 0
152.81526 9.7894402 8 0
154.81526 9.7894402 1 0
156.81526 9.7894402 1 0
158.81526 9.7894402 1 0
160.81526 9.7894402 2 0
162.81526 9.7894402 1 0
164.81526 9.7894402 25 0
166.81526 9.7894402 6 0
168.81526 9.7894402 16 0
170.81526 9.7894402 11 0
174.81526 9.7894402 0 0
176.81526 9.7894402 3 0
180.81526 9.7894402 0 0
182.81526 9.7894402 9 0
184.81526 9.7894402 5 0
186.81526 9.7894402 6 0
188.81526 9.7894402 14 0
192.81526 9.7894402 1 0
194.81526 9.7894402 3 0
-167.18474 11.78944 2 0
-165.18474 11.78944 2 0
-163.18474 11.78944 7 0
-161.18474 11.78944 7 0
-159.18474 11.78944 2 0
-157.18474 11.78944 10 0
-153.18474 11.78944 1 0
-151.18474 11.78944 3 0
-149.18474 11.78944 1 0
-145.18474 11.78944 4 0
-143.18474 11.78944 5 0
-141.18474 11.78944 4 0
-139.18474 11.78944 17 0
-137.18474 11.78944 6 0
-133.18474 11.78944 1 0
-131.18474 11.78944 2 0
-129.18474 11.78944 1 0
-127.18474 11.78944 1 0
-125.18474 11.78944 3 0
-123.18474 11.78944 1 0
-121.18474 11.78944 11 0
-119.18474 11.78944 13 0
-115.18474 11.78944 3 0
-113.18474 11.78944 1 0
-109.18474 11.78944 3 0
-107.18474 11.78944 3 0
-105.18474 11.78944 2 0
-103.18474 11.78944 8 0
-101.18474 11.78944 13 0
-97.184738 11.78944 1 0
-95.184738 11.78944 4 0
-93.184738 11.78944 7 0
-91.184738 11.78944 9 0
-87.184738 11.78944 0 0
-85.184738 11.78944 2 0
-83.184738 11.78944 17 0
-79.184738 11.78944 1 0
-77.184738 11.78944 3 0
-75.184738 11.78944 3 0
-73.184738 11.78944 13 0
-71.184738 11.78944 2 0
-67.184738 11.78944 0 0
-65.184738 11.78944 11 0
-63.184738 11.78944 1 0
-61.184738 11.78944 3 0
-59.184738 11.78944 2 0
-55.184738 11.78944 3 0
-53.184738 11.78944 12 0
-49.184738 11.78944 0 0
-47.184738 11.78944 3 0
-45.184738 11.78944 1 0
-41.184738 11.78944 2 0
-39.184738 11.78944 3 0
-37.184738 11.78944 4 0
-35.184738 11.78944 10 0
-31.184738 11.78944 0 0
-27.184738 11.78944 4 0
-23.184738 11.78944 1 0
-21.184738 11.78944 5 0
-19.184738 11.78944 8 0
-17.184738 11.78944 8 0
-15.184738 11.78944 8 0
-11.184738 11.78944 0 0
-9.1847382 11.78944 2 0
-5.1847382 11.78944 0 0
-3.1847382 11.78944 2 0
-1.1847382 11.78944 5 0
0.81526184 11.78944 10 0
2.8152618 11.78944 16 0
4.8152618 11.78944 1 0
8.8152618 11.78944 0 0
12.815262 11.78944 0 0
14.815262 11.78944 4 0
16.815262 11.78944 4 0
18.815262 11.78944 6 0
20.815262 11.78944 29 0
22.815262 11.78944 2 0
26.815262 11.78944 3 0
28.815262 11.78944 1 0
32.815262 11.78944 0 0
34.815262 11.78944 6 0
36.815262 11.78944 6 0
38.815262 11.78944 13 0
40.815262 11.78944 22 0
44.815262 11.78944 3 0
46.815262 11.78944 2 0
48.815262 11.78944 1 0
50.815262 11.78944 1 0
52.815262 11.78944 11 0
54.815262 11.78944 2 0
56.815262 11.78944 13 0
58.815262 11.78944 29 0
60.815262 11.78944 6 0
64.815262 11.78944 4 0
66.815262 11.78944 2 0
68.815262 11.78944 1 0
70.815262 11.78944 10 0
72.815262 11.78944 2 0
74.815262 11.78944 8 0
76.815262 11.78944 28 0
78.815262 11.78944 8 0
82.815262 11.78944 7 0
86.815262 11.78944 9 0
88.815262 11.78944 4 0
90.815262 11.78944 6 0
92.815262 11.78944 7 0
94.815262 11.78944 22 0
96.815262 11.78944 21 0
98.815262 11.78944 3 0
102.81526 11.78944 0 0
104.81526 11.78944 5 0
106.81526 11.78944 2 0
108.81526 11.78944 8 0
110.81526 11.78944 7 0
112.81526 11.78944 14 0
114.81526 11.78944 21 0
116.81526 11.78944 6 0
120.81526 11.78944 0 0
122.81526 11.78944 2 0
124.81526 11.78944 6 0
126.81526 11.78944 11 0
128.81526 11.78944 5 0
130.81526 11.78944 13 0
132.81526 11.78944 16 0
134.81526 11.78944 15 0
138.81526 11.78944 0 0
140.81526 11.78944 2 0
142.81526 11.78944 7 0
144.81526 11.78944 3 0
146.81526 11.78944 1 0
148.81526 11.78944 9 0
150.81526 11.78944 20 0
152.81526 11.78944 15 0
156.81526 11.78944 0 0
160.81526 11.78944 6 0
162.81526 11.78944 2 0
164.81526 11.78944 4 0
166.81526 11.78944 7 0
168.81526 11.78944 9 0
170.81526 11.78944 15 0
172.81526 11.78944 1 0
176.81526 11.78944 0 0
178.81526 11.78944 2 0
180.81526 11.78944 5 0
182.81526 11.78944 2 0
184.81526 11.78944 4 0
186.81526 11.78944 17 0
188.81526 11.78944 12 0
190.81526 11.78944 8 0
194.81526 11.78944 0 0
-167.18474 13.78944 4 0
-165.18474 13.78944 4 0
-163.18474 13.78944 3 0
-161.18474 13.78944 9 0
-159.18474 13.78944 19 0
-157.18474 13.78944 10 0
-155.18474 13.78944 18 0
-151.18474 13.78944 0 0
-149.18474 13.78944 6 0
-147.18474 13.78944 5 0
-143.18474 13.78944 2 0
-141.18474 13.78944 11 0
-139.18474 13.78944 19 0
-137.18474 13.78944 22 0
-135.18474 13.78944 2 0
-131.18474 13.78944 1 0
-129.18474 13.78944 6 0
-127.18474 13.78944 2 0
-123.18474 13.78944 5 0
-121.18474 13.78944 11 0
-119.18474 13.78944 11 0
-117.18474 13.78944 3 0
-113.18474 13.78944 2 0
-111.18474 13.78944 3 0
-109.18474 13.78944 4 0
-105.18474 13.78944 3 0
-103.18474 13.78944 16 0
-101.18474 13.78944 8 0
-99.184738 13.78944 8 0
-95.184738 13.78944 2 0
-93.184738 13.78944 6 0
-91.184738 13.78944 1 0
-87.184738 13.78944 5 0
-85.184738 13.78944 10 0
-83.184738 13.78944 8 0
-81.184738 13.78944 10 0
-79.184738 13.78944 3 0
-77.184738 13.78944 2 0
-75.184738 13.78944 8 0
-73.184738 13.78944 3 0
-69.184738 13.78944 3 0
-67.184738 13.78944 1 0
-65.184738 13.78944 4 0
-63.184738 13.78944 5 0
-61.184738 13.78944 4 0
-57.184738 13.78944 9 0
-55.184738 13.78944 2 0
-51.184738 13.78944 10 0
-47.184738 13.78944 11 0
-45.184738 13.78944 8 0
-43.184738 13.78944 5 0
-41.184738 13.78944 2 0
-39.184738 13.78944 6 0
-37.184738 13.78944 6 0
-35.184738 13.78944 3 0
-33.184738 13.78944 7 0
-31.184738 13.78944 1 0
-29.184738 13.78944 5 0
-27.184738 13.78944 2 0
-25.184738 13.78944 2 0
-23.184738 13.78944 4 0
-21.184738 13.78944 3 0
-19.184738 13.78944 6 0
-17.184738 13.78944 4 0
-15.184738 13.78944 7 0
-13.184738 13.78944 2 0
-11.184738 13.78944 15 0
-9.1847382 13.78944 6 0
-5.1847382 13.78944 3 0
-3.1847382 13.78944 4 0
-1.1847382 13.78944 2 0
0.81526184 13.78944 5 0
2.8152618 13.78944 7 0
4.8152618 13.78944 2 0
6.8152618 13.78944 20 0
8.8152618 13.78944 1 0
10.815262 13.78944 1 0
14.815262 13.78944 5 0
16.815262 13.78944 8 0
18.815262 13.78944 15 0
20.815262 13.78944 10 0
22.815262 13.78944 2 0
24.815262 13.78944 10 0
26.815262 13.78944 7 0
28.815262 13.78944 3 0
30.815262 13.78944 1 0
32.815262 13.78944 5 0
34.815262 13.78944 9 0
36.815262 13.78944 8 0
38.815262 13.78944 8 0
40.815262 13.78944 3 0
44.815262 13.78944 23 0
46.815262 13.78944 7 0
48.815262 13.78944 1 0
52.815262 13.78944 7 0
54.815262 13.78944 8 0
56.815262 13.78944 2 0
58.815262 13.78944 6 0
62.815262 13.78944 30 0
64.815262 13.78944 2 0
66.815262 13.78944 1 0
70.815262 13.78944 6 0
72.815262 13.78944 4 0
74.815262 13.78944 2 0
76.815262 13.78944 2 0
80.815262 13.78944 10 0
82.815262 13.78944 9 0
84.815262 13.78944 3 0
88.815262 13.78944 6 0
90.815262 13.78944 1 0
92.815262 13.78944 10 0
94.815262 13.78944 8 0
96.815262 13.78944 1 0
98.815262 13.78944 6 0
100.81526 13.78944 6 0
102.81526 13.78944 5 0
104.81526 13.78944 5 0
106.81526 13.78944 3 0
108.81526 13.78944 1 0
110.81526 13.78944 12 0
112.81526 13.78944 5 0
114.81526 13.78944 2 0
116.81526 13.78944 5 0
118.81526 13.78944 4 0
120.81526 13.78944 6 0
122.81526 13.78944 6 0
124.81526 13.78944 7 0
126.81526 13.78944 3 0
128.81526 13.78944 10 0
130.81526 13.78944 15 0
132.81526 13.78944 3 0
134.81526 13.78944 13 0
136.81526 13.78944 6 0
138.81526 13.78944 5 0
140.81526 13.78944 4 0
142.81526 13.78944 5 0
144.81526 13.78944 1 0
146.81526 13.78944 11 0
148.81526 13.78944 7 0
150.81526 13.78944 8 0
152.81526 13.78944 3 0
154.81526 13.78944 5 0
156.81526 13.78944 8 0
158.81526 13.78944 6 0
160.81526 13.78944 2 0
162.81526 13.78944 9 0
164.81526 13.78944 6 0
166.81526 13.78944 16 0
168.81526 13.78944 7 0
170.81526 13.78944 8 0
172.81526 13.78944 3 0
174.81526 13.78944 9 0
176.81526 13.78944 2 0
178.81526 13.78944 2 0
180.81526 13.78944 9 0
182.81526 13.78944 7 0
184.81526 13.78944 11 0
186.81526 13.78944 10 0
188.81526 13.78944 14 0
190.81526 13.78944 12 0
192.81526 13.78944 17 0
194.81526 13.78944 4 0
-167.18474 15.78944 3 0
-165.18474 15.78944 14 0
-163.18474 15.78944 2 0
-161.18474 15.78944 11 0
-159.18474 15.78944 9 0
-157.18474 15.78944 8 0
-155.18474 15.78944 4 0
-153.18474 15.78944 8 0
-151.18474 15.78944 10 0
-149.18474 15.78944 1 0
-147.18474 15.78944 7 0
-145.18474 15.78944 3 0
-143.18474 15.78944 11 0
-141.18474 15.78944 17 0
-139.18474 15.78944 8 0
-137.18474 15.78944 2 0
-135.18474 15.78944 4 0
-133.18474 15.78944 15 0
-131.18474 15.78944 1 0
-129.18474 15.78944 7 0
-127.18474 15.78944 6 0
-125.18474 15.78944 19 0
-123.18474 15.78944 10 0
-121.18474 15.78944 8 0
-119.18474 15.78944 3 0
-117.18474 15.78944 3 0
-115.18474 15.78944 9 0
-113.18474 15.78944 8 0
-111.18474 15.78944 2 0
-109.18474 15.78944 4 0
-107.18474 15.78944 18 0
-105.18474 15.78944 24 0
-103.18474 15.78944 10 0
-101.18474 15.78944 2 0
-99.184738 15.78944 3 0
-97.184738 15.78944 10 0
-95.184738 15.78944 14 0
-93.184738 15.78944 5 0
-91.184738 15.78944 2 0
-89.184738 15.78944 14 0
-87.184738 15.78944 17 0
-85.184738 15.78944 5 0
-83.184738 15.78944 5 0
-81.184738 15.78944 16 0
-79.184738 15.78944 16 0
-77.184738 15.78944 12 0
-75.184738 15.78944 18 0
-73.184738 15.78944 2 0
-71.184738 15.78944 11 0
-69.184738 15.78944 17 0
-67.184738 15.78944 7 0
-65.184738 15.78944 4 0
-63.184738 15.78944 6 0
-61.184738 15.78944 22 0
-59.184738 15.78944 21 0
-57.184738 15.78944 11 0
-55.184738 15.78944 5 0
-53.184738 15.78944 2 0
-51.184738 15.78944 19 0
-49.184738 15.78944 14 0
-47.184738 15.78944 13 0
-45.184738 15.78944 7 0
-43.184738 15.78944 11 0
-41.184738 15.78944 13 0
-39.184738 15.78944 23 0
-37.184738 15.78944 3 0
-35.184738 15.78944 6 0
-33.184738 15.78944 10 0
-31.184738 15.78944 13 0
-29.184738 15.78944 10 0
-27.184738 15.78944 7 0
-25.184738 15.78944 15 0
-23.184738 15.78944 8 0
-21.184738 15.78944 12 0
-19.184738 15.78944 17 0
-17.184738 15.78944 10 0
-15.184738 15.78944 9 0
-13.184738 15.78944 14 0
-11.184738 15.78944 6 0
-9.1847382 15.78944 15 0
-7.1847382 15.78944 8 0
-5.1847382 15.78944 3 0
-3.1847382 15.78944 19 0
-1.1847382 15.78944 19 0
0.81526184 15.78944 4 0
2.8152618 15.78944 7 0
4.8152618 15.78944 21 0
6.8152618 15.78944 7 0
8.8152618 15.78944 27 0
10.815262 15.78944 19 0
12.815262 15.78944 7 0
14.815262 15.78944 13 0
16.815262 15.78944 32 0
18.815262 15.78944 1 0
22.815262 15.78944 15 0
24.815262 15.78944 14 0
26.815262 15.78944 13 0
28.815262 15.78944 36 0
30.815262 15.78944 12 0
32.815262 15.78944 14 0
34.815262 15.78944 33 0
36.815262 15.78944 1 0
38.815262 15.78944 1 0
40.815262 15.78944 6 0
42.815262 15.78944 17 0
44.815262 15.78944 12 0
46.815262 15.78944 26 0
48.815262 15.78944 28 0
50.815262 15.78944 11 0
52.815262 15.78944 34 0
54.815262 15.78944 1 0
56.815262 15.78944 4 0
58.815262 15.78944 9 0
60.815262 15.78944 19 0
62.815262 15.78944 7 0
64.815262 15.78944 26 0
66.815262 15.78944 34 0
68.815262 15.78944 7 0
70.815262 15.78944 23 0
72.815262 15.78944 21 0
74.815262 15.78944 9 0
76.815262 15.78944 10 0
78.815262 15.78944 21 0
80.815262 15.78944 13 0
82.815262 15.78944 13 0
84.815262 15.78944 22 0
86.815262 15.78944 8 0
88.815262 15.78944 18 0
90.815262 15.78944 30 0
92.815262 15.78944 2 0
94.815262 15.78944 14 0
96.815262 15.78944 19 0
98.815262 15.78944 14 0
100.81526 15.78944 10 0
102.81526 15.78944 23 0
104.81526 15.78944 25 0
106.81526 15.78944 5 0
108.81526 15.78944 31 0
110.81526 15.78944 4 0
112.81526 15.78944 1 0
114.81526 15.78944 26 0
116.81526 15.78944 19 0
118.81526 15.78944 15 0
120.81526 15.78944 17 0
122.81526 15.78944 23 0
124.81526 15.78944 11 0
126.81526 15.78944 31 0
128.81526 15.78944 5 0
130.81526 15.78944 3 0
132.81526 15.78944 13 0
134.81526 15.78944 24 0
136.81526 15.78944 10 0
138.81526 15.78944 25 0
140.81526 15.78944 35 0
142.81526 15.78944 20 0
144.81526 15.78944 28 0
146.81526 15.78944 13 0
148.81526 15.78944 11 0
150.81526 15.78944 12 0
152.81526 15.78944 15 0
154.81526 15.78944 13 0
156.81526 15.78944 20 0
158.81526 15.78944 52 0
160.81526 15.78944 18 0
162.81526 15.78944 18 0
164.81526 15.78944 31 0
166.81526 15.78944 21 0
168.81526 15.78944 23 0
170.81526 15.78944 11 0
172.81526 15.78944 8 0
174.81526 15.78944 4 0
176.81526 15.78944 28 0
178.81526 15.78944 22 0
180.81526 15.78944 5 0
182.81526 15.78944 45 0
184.81526 15.78944 5 0
186.81526 15.78944 22 0
188.81526 15.78944 23 0
190.81526 15.78944 19 0
192.81526 15.78944 11 0
194.81526 15.78944 20 0
-167.18474 17.78944 29 0
-165.18474 17.78944 5 0
-163.18474 17.78944 55 0
-161.18474 17.78944 13 0
-159.18474 17.78944 10 0
-157.18474 17.78944 22 0
-155.18474 17.78944 16 0
-153.18474 17.78944 13 0
-151.18474 17.78944 13 0
-149.18474 17.78944 30 0
-147.18474 17.78944 9 0
-145.18474 17.78944 38 0
-143.18474 17.78944 13 0
-141.18474 17.78944 7 0
-139.18474 17.78944 16 0
-137.18474 17.78944 16 0
-135.18474 17.78944 11 0
-133.18474 17.78944 19 0
-131.18474 17.78944 28 0
-129.18474 17.78944 22 0
-127.18474 17.78944 27 0
-125.18474 17.78944 16 0
-123.18474 17.78944 18 0
-121.18474 17.78944 22 0
-119.18474 17.78944 12 0
-117.18474 17.78944 16 0
-115.18474 17.78944 14 0
-113.18474 17.78944 27 0
-111.18474 17.78944 23 0
-109.18474 17.78944 10 0
-107.18474 17.78944 34 0
-105.18474 17.78944 13 0
-103.18474 17.78944 19 0
-101.18474 17.78944 27 0
-99.184738 17.78944 26 0
-97.184738 17.78944 7 0
-95.184738 17.78944 26 0
-93.184738 17.78944 25 0
-91.184738 17.78944 24 0
-89.184738 17.78944 30 0
-87.184738 17.78944 3 0
-85.184738 17.78944 8 0
-83.184738 17.78944 20 0
-81.184738 17.78944 35 0
-79.184738 17.78944 18 0
-77.184738 17.78944 21 0
-75.184738 17.78944 27 0
-73.184738 17.78944 25 0
-71.184738 17.78944 23 0
-69.184738 17.78944 13 0
-67.184738 17.78944 8 0
-65.184738 17.78944 12 0
-63.184738 17.78944 17 0
-61.184738 17.78944 27 0
-59.184738 17.78944 13 0
-57.184738 17.78944 28 0
-55.184738 17.78944 18 0
-53.184738 17.78944 37 0
-51.184738 17.78944 5 0
-49.184738 17.78944 15 0
-47.184738 17.78944 18 0
-45.184738 17.78944 11 0
-43.184738 17.78944 22 0
-41.184738 17.78944 12 0
-39.184738 17.78944 24 0
-37.184738 17.78944 14 0
-35.184738 17.78944 28 0
-33.184738 17.78944 17 0
-31.184738 17.78944 28 0
-29.184738 17.78944 12 0
-27.184738 17.78944 7 0
-25.184738 17.78944 21 0
-23.184738 17.78944 17 0
-21.184738 17.78944 19 0
-19.184738 17.78944 13 0
-17.184738 17.78944 24 0
-15.184738 17.78944 26 0
-13.184738 17.78944 10 0
-11.184738 17.78944 14 0
-9.1847382 17.78944 8 0
-7.1847382 17.78944 30 0
-5.1847382 17.78944 15 0
-3.1847382 17.78944 17 0
-1.1847382 17.78944 18 0
0.81526184 17.78944 7 0
2.8152618 17.78944 36 0
4.8152618 17.78944 28 0
6.8152618 17.78944 14 0
8.8152618 17.78944 18 0
10.815262 17.78944 15 0
12.815262 17.78944 27 0
14.815262 17.78944 4 0
16.815262 17.78944 35 0
18.815262 17.78944 7 0
20.815262 17.78944 40 0
22.815262 17.78944 7 0
24.815262 17.78944 13 0
26.815262 17.78944 28 0
28.815262 17.78944 6 0
30.815262 17.78944 18 0
32.815262 17.78944 10 0
34.815262 17.78944 27 0
36.815262 17.78944 8 0
38.815262 17.78944 36 0
40.815262 17.78944 6 0
42.815262 17.78944 13 0
44.815262 17.78944 19 0
46.815262 17.78944 8 0
48.815262 17.78944 20 0
50.815262 17.78944 15 0
52.815262 17.78944 10 0
54.815262 17.78944 24 0
56.815262 17.78944 29 0
58.815262 17.78944 28 0
60.815262 17.78944 12 0
62.815262 17.78944 28 0
64.815262 17.78944 16 0
66.815262 17.78944 10 0
68.815262 17.78944 14 0
70.815262 17.78944 12 0
72.815262 17.78944 27 0
74.815262 17.78944 23 0
76.815262 17.78944 59 0
78.815262 17.78944 16 0
80.815262 17.78944 15 0
82.815262 17.78944 20 0
84.815262 17.78944 10 0
86.815262 17.78944 16 0
88.815262 17.78944 9 0
90.815262 17.78944 13 0
92.815262 17.78944 14 0
94.815262 17.78944 60 0
96.815262 17.78944 41 0
98.815262 17.78944 27 0
100.81526 17.78944 30 0
102.81526 17.78944 27 0
104.81526 17.78944 10 0
106.81526 17.78944 10 0
108.81526 17.78944 13 0
110.81526 17.78944 4 0
112.81526 17.78944 58 0
114.81526 17.78944 28 0
116.81526 17.78944 35 0
118.81526 17.78944 26 0
120.81526 17.78944 30 0
122.81526 17.78944 14 0
124.81526 17.78944 7 0
126.81526 17.78944 16 0
128.81526 17.78944 2 0
130.81526 17.78944 56 0
132.81526 17.78944 35 0
134.81526 17.78944 14 0
136.81526 17.78944 32 0
138.81526 17.78944 26 0
140.81526 17.78944 25 0
142.81526 17.78944 11 0
144.81526 17.78944 14 0
146.81526 17.78944 7 0
148.81526 17.78944 17 0
150.81526 17.78944 49 0
152.81526 17.78944 14 0
154.81526 17.78944 30 0
156.81526 17.78944 29 0
158.81526 17.78944 31 0
160.81526 17.78944 10 0
162.81526 17.78944 10 0
164.81526 17.78944 19 0
166.81526 17.78944 2 0
168.81526 17.78944 45 0
170.81526 17.78944 21 0
172.81526 17.78944 20 0
174.81526 17.78944 40 0
176.81526 17.78944 16 0
178.81526 17.78944 15 0
180.81526 17.78944 10 0
182.81526 17.78944 8 0
184.81526 17.78944 9 0
186.81526 17.78944 50 0
188.81526 17.78944 23 0
190.81526 17.78944 22 0
192.81526 17.78944 49 0
194.81526 17.78944 20 0
-167.18474 19.78944 7 0
-165.18474 19.78944 11 0
-163.18474 19.78944 10 0
-161.18474 19.78944 7 0
-159.18474 19.78944 32 0
-157.18474 19.78944 24 0
-155.18474 19.78944 17 0
-153.18474 19.78944 51 0
-151.18474 19.78944 21 0
-149.18474 19.78944 15 0
-147.18474 19.78944 11 0
-145.18474 19.78944 6 0
-143.18474 19.78944 1 0
-141.18474 19.78944 36 0
-139.18474 19.78944 25 0
-137.18474 19.78944 12 0
-135.18474 19.78944 24 0
-133.18474 19.78944 42 0
-131.18474 19.78944 24 0
-129.18474 19.78944 15 0
-127.18474 19.78944 13 0
-125.18474 19.78944 2 0
-123.18474 19.78944 11 0
-121.18474 19.78944 32 0
-119.18474 19.78944 16 0
-117.18474 19.78944 13 0
-115.18474 19.78944 44 0
-113.18474 19.78944 27 0
-111.18474 19.78944 19 0
-109.18474 19.78944 24 0
-107.18474 19.78944 7 0
-105.18474 19.78944 2 0
-103.18474 19.78944 30 0
-101.18474 19.78944 14 0
-99.184738 19.78944 13 0
-97.184738 19.78944 30 0
-95.184738 19.78944 35 0
-93.184738 19.78944 17 0
-91.184738 19.78944 12 0
-89.184738 19.78944 18 0
-87.184738 19.78944 2 0
-85.184738 19.78944 33 0
-83.184738 19.78944 22 0
-81.184738 19.78944 18 0
-79.184738 19.78944 28 0
-77.184738 19.78944 37 0
-75.184738 19.78944 24 0
-73.184738 19.78944 10 0
-71.184738 19.78944 23 0
-69.184738 19.78944 11 0
-67.184738 19.78944 34 0
-65.184738 19.78944 19 0
-63.184738 19.78944 21 0
-61.184738 19.78944 14 0
-59.184738 19.78944 36 0
-57.184738 19.78944 34 0
-55.184738 19.78944 11 0
-53.184738 19.78944 15 0
-51.184738 19.78944 8 0
-49.184738 19.78944 47 0
-47.184738 19.78944 34 0
-45.184738 19.78944 25 0
-43.184738 19.78944 25 0
-41.184738 19.78944 45 0
-39.184738 19.78944 29 0
-37.184738 19.78944 13 0
-35.184738 19.78944 13 0
-33.184738 19.78944 4 0
-31.184738 19.78944 23 0
-29.184738 19.78944 35 0
-27.184738 19.78944 49 0
-25.184738 19.78944 8 0
-23.184738 19.78944 21 0
-21.184738 19.78944 36 0
-19.184738 19.78944 12 0
-17.184738 19.78944 28 0
-15.184738 19.78944 7 0
-13.184738 19.78944 10 0
-11.184738 19.78944 37 0
-9.1847382 19.78944 26 0
-7.1847382 19.78944 21 0
-5.1847382 19.78944 22 0
-3.1847382 19.78944 28 0
-1.1847382 19.78944 20 0
0.81526184 19.78944 20 0
2.8152618 19.78944 17 0
4.8152618 19.78944 18 0
6.8152618 19.78944 41 0
8.8152618 19.78944 13 0
10.815262 19.78944 16 0
12.815262 19.78944 15 0
14.815262 19.78944 42 0
16.815262 19.78944 29 0
18.815262 19.78944 9 0
20.815262 19.78944 43 0
22.815262 19.78944 13 0
24.815262 19.78944 44 0
26.815262 19.78944 7 0
28.815262 19.78944 19 0
30.815262 19.78944 6 0
32.815262 19.78944 26 0
34.815262 19.78944 31 0
36.815262 19.78944 19 0
38.815262 19.78944 22 0
40.815262 19.78944 27 0
42.815262 19.78944 36 0
44.815262 19.78944 18 0
46.815262 19.78944 10 0
48.815262 19.78944 12 0
50.815262 19.78944 21 0
52.815262 19.78944 40 0
54.815262 19.78944 20 0
56.815262 19.78944 15 0
58.815262 19.78944 20 0
60.815262 19.78944 16 0
62.815262 19.78944 41 0
64.815262 19.78944 9 0
66.815262 19.78944 13 0
68.815262 19.78944 12 0
70.815262 19.78944 27 0
72.815262 19.78944 22 0
74.815262 19.78944 27 0
76.815262 19.78944 28 0
78.815262 19.78944 5 0
80.815262 19.78944 43 0
82.815262 19.78944 14 0
84.815262 19.78944 23 0
86.815262 19.78944 7 0
88.815262 19.78944 21 0
90.815262 19.78944 26 0
92.815262 19.78944 25 0
94.815262 19.78944 28 0
96.815262 19.78944 9 0
98.815262 19.78944 44 0
100.81526 19.78944 6 0
102.81526 19.78944 24 0
104.81526 19.78944 8 0
106.81526 19.78944 21 0
108.81526 19.78944 37 0
110.81526 19.78944 34 0
112.81526 19.78944 21 0
114.81526 19.78944 18 0
116.81526 19.78944 39 0
118.81526 19.78944 14 0
120.81526 19.78944 32 0
122.81526 19.78944 23 0
124.81526 19.78944 25 0
126.81526 19.78944 38 0
128.81526 19.78944 48 0
130.81526 19.78944 56 0
132.81526 19.78944 16 0
134.81526 19.78944 27 0
136.81526 19.78944 16 0
138.81526 19.78944 18 0
140.81526 19.78944 26 0
142.81526 19.78944 18 0
144.81526 19.78944 33 0
146.81526 19.78944 53 0
148.81526 19.78944 58 0
150.81526 19.78944 31 0
152.81526 19.78944 38 0
154.81526 19.78944 34 0
156.81526 19.78944 20 0
158.81526 19.78944 33 0
160.81526 19.78944 5 0
162.81526 19.78944 26 0
164.81526 19.78944 37 0
166.81526 19.78944 81 0
168.81526 19.78944 37 0
170.81526 19.78944 18 0
172.81526 19.78944 42 0
174.81526 19.78944 14 0
176.81526 19.78944 41 0
178.81526 19.78944 17 0
180.81526 19.78944 17 0
182.81526 19.78944 30 0
184.81526 19.78944 102 0
186.81526 19.78944 44 0
188.81526 19.78944 16 0
190.81526 19.78944 26 0
192.81526 19.78944 20 0
194.81526 19.78944 38 0
-167.18474 21.78944 15 0
-165.18474 21.78944 14 0
-163.18474 21.78944 26 0
-161.18474 21.78944 68 0
-159.18474 21.78944 58 0
-157.18474 21.78944 14 0
-155.18474 21.78944 29 0
-153.18474 21.78944 16 0
-151.18474 21.78944 12 0
-149.18474 21.78944 27 0
-147.18474 21.78944 17 0
-145.18474 21.78944 23 0
-143.18474 21.78944 37 0
-141.18474 21.78944 80 0
-139.18474 21.78944 24 0
-137.18474 21.78944 20 0
-135.18474 21.78944 14 0
-133.18474 21.78944 28 0
-131.18474 21.78944 27 0
-129.18474 21.78944 21 0
-127.18474 21.78944 18 0
-125.18474 21.78944 34 0
-123.18474 21.78944 72 0
-121.18474 21.78944 29 0
-119.18474 21.78944 29 0
-117.18474 21.78944 43 0
-115.18474 21.78944 24 0
-113.18474 21.78944 21 0
-111.18474 21.78944 16 0
-109.18474 21.78944 20 0
-107.18474 21.78944 38 0
-105.18474 21.78944 57 0
-103.18474 21.78944 48 0
-101.18474 21.78944 23 0
-99.184738 21.78944 46 0
-97.184738 21.78944 14 0
-95.184738 21.78944 34 0
-93.184738 21.78944 24 0
-91.184738 21.78944 35 0
-89.184738 21.78944 38 0
-87.184738 21.78944 55 0
-85.184738 21.78944 58 0
-83.184738 21.78944 20 0
-81.184738 21.78944 59 0
-79.184738 21.78944 11 0
-77.184738 21.78944 49 0
-75.184738 21.78944 18 0
-73.184738 21.78944 57 0
-71.184738 21.78944 41 0
-69.184738 21.78944 34 0
-67.184738 21.78944 74 0
-65.184738 21.78944 26 0
-63.184738 21.78944 57 0
-61.184738 21.78944 14 0
-59.184738 21.78944 35 0
-57.184738 21.78944 39 0
-55.184738 21.78944 52 0
-53.184738 21.78944 30 0
-51.184738 21.78944 27 0
-49.184738 21.78944 69 0
-47.184738 21.78944 56 0
-45.184738 21.78944 52 0
-43.184738 21.78944 43 0
-41.184738 21.78944 33 0
-39.184738 21.78944 25 0
-37.184738 21.78944 52 0
-35.184738 21.78944 40 0
-33.184738 21.78944 49 0
-31.184738 21.78944 59 0
-29.184738 21.78944 43 0
-27.184738 21.78944 41 0
-25.184738 21.78944 55 0
-23.184738 21.78944 21 0
-21.184738 21.78944 45 0
-19.184738 21.78944 62 0
-17.184738 21.78944 39 0
-15.184738 21.78944 28 0
-13.184738 21.78944 42 0
-11.184738 21.78944 73 0
-9.1847382 21.78944 45 0
-7.1847382 21.78944 45 0
-5.1847382 21.78944 18 0
-3.1847382 21.78944 68 0
-1.1847382 21.78944 36 0
0.81526184 21.78944 34 0
2.8152618 21.78944 16 0
4.8152618 21.78944 43 0
6.8152618 21.78944 76 0
8.8152618 21.78944 48 0
10.815262 21.78944 49 0
12.815262 21.78944 5 0
14.815262 21.78944 45 0
16.815262 21.78944 44 0
18.815262 21.78944 49 0
20.815262 21.78944 43 0
22.815262 21.78944 38 0
24.815262 21.78944 60 0
26.815262 21.78944 60 0
28.815262 21.78944 53 0
30.815262 21.78944 16 0
32.815262 21.78944 28 0
34.815262 21.78944 53 0
36.815262 21.78944 48 0
38.815262 21.78944 51 0
40.815262 21.78944 35 0
42.815262 21.78944 66 0
44.815262 21.78944 63 0
46.815262 21.78944 45 0
48.815262 21.78944 42 0
50.815262 21.78944 23 0
52.815262 21.78944 50 0
54.815262 21.78944 59 0
56.815262 21.78944 53 0
58.815262 21.78944 40 0
60.815262 21.78944 35 0
62.815262 21.78944 60 0
64.815262 21.78944 42 0
66.815262 21.78944 44 0
68.815262 21.78944 25 0
70.815262 21.78944 43 0
72.815262 21.78944 48 0
74.815262 21.78944 64 0
76.815262 21.78944 53 0
78.815262 21.78944 55 0
80.815262 21.78944 63 0
82.815262 21.78944 56 0
84.815262 21.78944 31 0
86.815262 21.78944 14 0
88.815262 21.78944 38 0
90.815262 21.78944 39 0
92.815262 21.78944 75 0
94.815262 21.78944 51 0
96.815262 21.78944 52 0
98.815262 21.78944 50 0
100.81526 21.78944 51 0
102.81526 21.78944 40 0
104.81526 21.78944 21 0
106.81526 21.78944 32 0
108.81526 21.78944 37 0
110.81526 21.78944 74 0
112.81526 21.78944 67 0
114.81526 21.78944 46 0
116.81526 21.78944 60 0
118.81526 21.78944 62 0
120.81526 21.78944 15 0
122.81526 21.78944 24 0
124.81526 21.78944 29 0
126.81526 21.78944 58 0
128.81526 21.78944 44 0
130.81526 21.78944 63 0
132.81526 21.78944 41 0
134.81526 21.78944 33 0
136.81526 21.78944 58 0
138.81526 21.78944 33 0
140.81526 21.78944 17 0
142.81526 21.78944 24 0
144.81526 21.78944 38 0
146.81526 21.78944 34 0
148.81526 21.78944 55 0
150.81526 21.78944 35 0
152.81526 21.78944 19 0
154.81526 21.78944 48 0
156.81526 21.78944 42 0
158.81526 21.78944 19 0
160.81526 21.78944 19 0
162.81526 21.78944 22 0
164.81526 21.78944 32 0
166.81526 21.78944 68 0
168.81526 21.78944 74 0
170.81526 21.78944 23 0
172.81526 21.78944 42 0
174.81526 21.78944 34 0
176.81526 21.78944 33 0
178.81526 21.78944 23 0
180.81526 21.78944 38 0
182.81526 21.78944 45 0
184.81526 21.78944 63 0
186.81526 21.78944 51 0
188.81526 21.78944 31 0
190.81526 21.78944 50 0
192.81526 21.78944 40 0
194.81526 21.78944 32 0
-167.18474 23.78944 9 0
-165.18474 23.78944 62 0
-163.18474 23.78944 26 0
-161.18474 23.78944 52 0
-159.18474 23.78944 63 0
-157.18474 23.78944 43 0
-155.18474 23.78944 38 0
-153.18474 23.78944 47 0
-151.18474 23.78944 24 0
-149.18474 23.78944 14 0
-147.18474 23.78944 47 0
-145.18474 23.78944 37 0
-143.18474 23.78944 37 0
-141.18474 23.78944 57 0
-139.18474 23.78944 51 0
-137.18474 23.78944 43 0
-135.18474 23.78944 38 0
-133.18474 23.78944 22 0
-131.18474 23.78944 22 0
-129.18474 23.78944 31 0
-127.18474 23.78944 54 0
-125.18474 23.78944 30 0
-123.18474 23.78944 51 0
-121.18474 23.78944 64 0
-119.18474 23.78944 46 0
-117.18474 23.78944 56 0
-115.18474 23.78944 27 0
-113.18474 23.78944 17 0
-111.18474 23.78944 15 0
-109.18474 23.78944 53 0
-107.18474 23.78944 43 0
-105.18474 23.78944 68 0
-103.18474 23.78944 56 0
-101.18474 23.78944 45 0
-99.184738 23.78944 49 0
-97.184738 23.78944 32 0
-95.184738 23.78944 22 0
-93.184738 23.78944 12 0
-91.184738 23.78944 48 0
-89.184738 23.78944 30 0
-87.184738 23.78944 55 0
-85.184738 23.78944 47 0
-83.184738 23.78944 51 0
-81.184738 23.78944 45 0
-79.184738 23.78944 37 0
-77.184738 23.78944 12 0
-75.184738 23.78944 16 0
-73.184738 23.78944 45 0
-71.184738 23.78944 31 0
-69.184738 23.78944 53 0
-67.184738 23.78944 68 0
-65.184738 23.78944 62 0
-63.184738 23.78944 34 0
-61.184738 23.78944 49 0
-59.184738 23.78944 20 0
-57.184738 23.78944 16 0
-55.184738 23.78944 32 0
-53.184738 23.78944 33 0
-51.184738 23.78944 29 0
-49.184738 23.78944 74 0
-47.184738 23.78944 73 0
-45.184738 23.78944 24 0
-43.184738 23.78944 41 0
-41.184738 23.78944 30 0
-39.184738 23.78944 12 0
-37.184738 23.78944 25 0
-35.184738 23.78944 21 0
-33.184738 23.78944 41 0
-31.184738 23.78944 54 0
-29.184738 23.78944 75 0
-27.184738 23.78944 23 0
-25.184738 23.78944 44 0
-23.184738 23.78944 36 0
-21.184738 23.78944 14 0
-19.184738 23.78944 33 0
-17.184738 23.78944 23 0
-15.184738 23.78944 28 0
-13.184738 23.78944 59 0
-11.184738 23.78944 75 0
-9.1847382 23.78944 42 0
-7.1847382 23.78944 44 0
-5.1847382 23.78944 33 0
-3.1847382 23.78944 15 0
-1.1847382 23.78944 22 0
0.81526184 23.78944 34 0
2.8152618 23.78944 27 0
4.8152618 23.78944 41 0
6.8152618 23.78944 61 0
8.8152618 23.78944 49 0
10.815262 23.78944 36 0
12.815262 23.78944 38 0
14.815262 23.78944 20 0
16.815262 23.78944 23 0
18.815262 23.78944 49 0
20.815262 23.78944 27 0
22.815262 23.78944 53 0
24.815262 23.78944 68 0
26.815262 23.78944 55 0
28.815262 23.78944 46 0
30.815262 23.78944 36 0
32.815262 23.78944 26 0
34.815262 23.78944 13 0
36.815262 23.78944 36 0
38.815262 23.78944 43 0
40.815262 23.78944 31 0
42.815262 23.78944 64 0
44.815262 23.78944 52 0
46.815262 23.78944 36 0
48.815262 23.78944 52 0
50.815262 23.78944 28 0
52.815262 23.78944 14 0
54.815262 23.78944 26 0
56.815262 23.78944 25 0
58.815262 23.78944 44 0
60.815262 23.78944 44 0
62.815262 23.78944 52 0
64.815262 23.78944 42 0
66.815262 23.78944 47 0
68.815262 23.78944 27 0
70.815262 23.78944 21 0
72.815262 23.78944 28 0
74.815262 23.78944 45 0
76.815262 23.78944 40 0
78.815262 23.78944 69 0
80.815262 23.78944 55 0
82.815262 23.78944 53 0
84.815262 23.78944 43 0
86.815262 23.78944 45 0
88.815262 23.78944 25 0
90.815262 23.78944 27 0
92.815262 23.78944 32 0
94.815262 23.78944 34 0
96.815262 23.78944 60 0
98.815262 23.78944 60 0
100.81526 23.78944 55 0
102.81526 23.78944 44 0
104.81526 23.78944 38 0
106.81526 23.78944 34 0
108.81526 23.78944 23 0
110.81526 23.78944 34 0
112.81526 23.78944 39 0
114.81526 23.78944 60 0
116.81526 23.78944 63 0
118.81526 23.78944 56 0
120.81526 23.78944 47 0
122.81526 23.78944 35 0
124.81526 23.78944 35 0
126.81526 23.78944 24 0
128.81526 23.78944 33 0
130.81526 23.78944 33 0
132.81526 23.78944 52 0
134.81526 23.78944 51 0
136.81526 23.78944 56 0
138.81526 23.78944 54 0
140.81526 23.78944 53 0
142.81526 23.78944 39 0
144.81526 23.78944 16 0
146.81526 23.78944 22 0
148.81526 23.78944 53 0
150.81526 23.78944 41 0
152.81526 23.78944 73 0
154.81526 23.78944 44 0
156.81526 23.78944 90 0
158.81526 23.78944 70 0
160.81526 23.78944 47 0
162.81526 23.78944 24 0
164.81526 23.78944 21 0
166.81526 23.78944 38 0
168.81526 23.78944 42 0
170.81526 23.78944 52 0
172.81526 23.78944 66 0
174.81526 23.78944 67 0
176.81526 23.78944 65 0
178.81526 23.78944 44 0
180.81526 23.78944 35 0
182.81526 23.78944 19 0
184.81526 23.78944 25 0
186.81526 23.78944 42 0
188.81526 23.78944 43 0
190.81526 23.78944 76 0
192.81526 23.78944 77 0
194.81526 23.78944 55 0
-167.18474 25.78944 71 0
-165.18474 25.78944 49 0
-163.18474 25.78944 18 0
-161.18474 25.78944 39 0
-159.18474 25.78944 36 0
-157.18474 25.78944 43 0
-155.18474 25.78944 66 0
-153.18474 25.78944 128 0
-151.18474 25.78944 78 0
-149.18474 25.78944 53 0
-147.18474 25.78944 62 0
-145.18474 25.78944 23 0
-143.18474 25.78944 26 0
-141.18474 25.78944 41 0
-139.18474 25.78944 55 0
-137.18474 25.78944 74 0
-135.18474 25.78944 71 0
-133.18474 25.78944 152 0
-131.18474 25.78944 38 0
-129.18474 25.78944 63 0
-127.18474 25.78944 36 0
-125.18474 25.78944 19 0
-123.18474 25.78944 33 0
-121.18474 25.78944 71 0
-119.18474 25.78944 88 0
-117.18474 25.78944 76 0
-115.18474 25.78944 117 0
-113.18474 25.78944 67 0
-111.18474 25.78944 68 0
-109.18474 25.78944 25 0
-107.18474 25.78944 26 0
-105.18474 25.78944 37 0
-103.18474 25.78944 58 0
-101.18474 25.78944 67 0
-99.184738 25.78944 95 0
-97.184738 25.78944 78 0
-95.184738 25.78944 99 0
-93.184738 25.78944 49 0
-91.184738 25.78944 42 0
-89.184738 25.78944 24 0
-87.184738 25.78944 53 0
-85.184738 25.78944 59 0
-83.184738 25.78944 55 0
-81.184738 25.78944 104 0
-79.184738 25.78944 75 0
-77.184738 25.78944 127 0
-75.184738 25.78944 44 0
-73.184738 25.78944 85 0
-71.184738 25.78944 20 0
-69.184738 25.78944 32 0
-67.184738 25.78944 53 0
-65.184738 25.78944 68 0
-63.184738 25.78944 85 0
-61.184738 25.78944 59 0
-59.184738 25.78944 114 0
-57.184738 25.78944 48 0
-55.184738 25.78944 91 0
-53.184738 25.78944 34 0
-51.184738 25.78944 25 0
-49.184738 25.78944 36 0
-47.184738 25.78944 80 0
-45.184738 25.78944 101 0
-43.184738 25.78944 89 0
-41.184738 25.78944 99 0
-39.184738 25.78944 95 0
-37.184738 25.78944 84 0
-35.184738 25.78944 32 0
-33.184738 25.78944 19 0
-31.184738 25.78944 38 0
-29.184738 25.78944 37 0
-27.184738 25.78944 61 0
-25.184738 25.78944 91 0
-23.184738 25.78944 71 0
-21.184738 25.78944 98 0
-19.184738 25.78944 41 0
-17.184738 25.78944 66 0
-15.184738 25.78944 27 0
-13.184738 25.78944 41 0
-11.184738 25.78944 42 0
-9.1847382 25.78944 37 0
-7.1847382 25.78944 115 0
-5.1847382 25.78944 94 0
-3.1847382 25.78944 112 0
-1.1847382 25.78944 31 0
0.81526184 25.78944 92 0
2.8152618 25.78944 27 0
4.8152618 25.78944 39 0
6.8152618 25.78944 39 0
8.8152618 25.78944 37 0
10.815262 25.78944 117 0
12.815262 25.78944 86 0
14.815262 25.78944 88 0
16.815262 25.78944 51 0
18.815262 25.78944 78 0
20.815262 25.78944 26 0
22.815262 25.78944 29 0
24.815262 25.78944 32 0
26.815262 25.78944 80 0
28.815262 25.78944 96 0
30.815262 25.78944 105 0
32.815262 25.78944 92 0
34.815262 25.78944 76 0
36.815262 25.78944 32 0
38.815262 25.78944 62 0
40.815262 25.78944 25 0
42.815262 25.78944 42 0
44.815262 25.78944 41 0
46.815262 25.78944 84 0
48.815262 25.78944 77 0
50.815262 25.78944 64 0
52.815262 25.78944 103 0
54.815262 25.78944 25 0
56.815262 25.78944 68 0
58.815262 25.78944 32 0
60.815262 25.78944 40 0
62.815262 25.78944 40 0
64.815262 25.78944 65 0
66.815262 25.78944 92 0
68.815262 25.78944 63 0
70.815262 25.78944 94 0
72.815262 25.78944 33 0
74.815262 25.78944 73 0
76.815262 25.78944 22 0
78.815262 25.78944 36 0
80.815262 25.78944 42 0
82.815262 25.78944 68 0
84.815262 25.78944 90 0
86.815262 25.78944 64 0
88.815262 25.78944 83 0
90.815262 25.78944 55 0
92.815262 25.78944 40 0
94.815262 25.78944 75 0
96.815262 25.78944 52 0
98.815262 25.78944 44 0
100.81526 25.78944 35 0
102.81526 25.78944 86 0
104.81526 25.78944 65 0
106.81526 25.78944 79 0
108.81526 25.78944 67 0
110.81526 25.78944 24 0
112.81526 25.78944 67 0
114.81526 25.78944 45 0
116.81526 25.78944 44 0
118.81526 25.78944 35 0
120.81526 25.78944 80 0
122.81526 25.78944 59 0
124.81526 25.78944 43 0
126.81526 25.78944 90 0
128.81526 25.78944 25 0
130.81526 25.78944 71 0
132.81526 25.78944 29 0
134.81526 25.78944 41 0
136.81526 25.78944 30 0
138.81526 25.78944 81 0
140.81526 25.78944 73 0
142.81526 25.78944 56 0
144.81526 25.78944 66 0
146.81526 25.78944 39 0
148.81526 25.78944 39 0
150.81526 25.78944 56 0
152.81526 25.78944 37 0
154.81526 25.78944 44 0
156.81526 25.78944 86 0
158.81526 25.78944 80 0
160.81526 25.78944 48 0
162.81526 25.78944 76 0
164.81526 25.78944 48 0
166.81526 25.78944 16 0
168.81526 25.78944 67 0
170.81526 25.78944 54 0
172.81526 25.78944 47 0
174.81526 25.78944 53 0
176.81526 25.78944 89 0
178.81526 25.78944 70 0
180.81526 25.78944 41 0
182.81526 25.78944 47 0
184.81526 25.78944 22 0
186.81526 25.78944 63 0
188.81526 25.78944 44 0
190.81526 25.78944 38 0
192.81526 25.78944 26 0
194.81526 25.78944 98 0
-167.18474 27.78944 62 0
-165.18474 27.78944 40 0
-163.18474 27.78944 49 0
-161.18474 27.78944 24 0
-159.18474 27.78944 43 0
-157.18474 27.78944 52 0
-155.18474 27.78944 33 0
-153.18474 27.78944 34 0
-151.18474 27.78944 79 0
-149.18474 27.78944 80 0
-147.18474 27.78944 65 0
-145.18474 27.78944 42 0
-143.18474 27.78944 25 0
-141.18474 27.78944 19 0
-139.18474 27.78944 85 0
-137.18474 27.78944 41 0
-135.18474 27.78944 50 0
-133.18474 27.78944 57 0
-131.18474 27.78944 87 0
-129.18474 27.78944 42 0
-127.18474 27.78944 33 0
-125.18474 27.78944 30 0
-123.18474 27.78944 11 0
-121.18474 27.78944 57 0
-119.18474 27.78944 47 0
-117.18474 27.78944 53 0
-115.18474 27.78944 66 0
-113.18474 27.78944 93 0
-111.18474 27.78944 60 0
-109.18474 27.78944 50 0
-107.18474 27.78944 29 0
-105.18474 27.78944 12 0
-103.18474 27.78944 52 0
-101.18474 27.78944 70 0
-99.184738 27.78944 52 0
-97.184738 27.78944 46 0
-95.184738 27.78944 95 0
-93.184738 27.78944 66 0
-91.184738 27.78944 39 0
-89.184738 27.78944 31 0
-87.184738 27.78944 14 0
-85.184738 27.78944 21 0
-83.184738 27.78944 90 0
-81.184738 27.78944 44 0
-79.184738 27.78944 57 0
-77.184738 27.78944 86 0
-75.184738 27.78944 78 0
-73.184738 27.78944 42 0
-71.184738 27.78944 25 0
-69.184738 27.78944 23 0
-67.184738 27.78944 11 0
-65.184738 27.78944 113 0
-63.184738 27.78944 49 0
-61.184738 27.78944 60 0
-59.184738 27.78944 71 0
-57.184738 27.78944 82 0
-55.184738 27.78944 49 0
-53.184738 27.78944 27 0
-51.184738 27.78944 16 0
-49.184738 27.78944 11 0
-47.184738 27.78944 36 0
-45.184738 27.78944 90 0
-43.184738 27.78944 57 0
-41.184738 27.78944 70 0
-39.184738 27.78944 95 0
-37.184738 27.78944 63 0
-35.184738 27.78944 28 0
-33.184738 27.78944 23 0
-31.184738 27.78944 9 0
-29.184738 27.78944 18 0
-27.184738 27.78944 102 0
-25.184738 27.78944 57 0
-23.184738 27.78944 55 0
-21.184738 27.78944 79 0
-19.184738 27.78944 65 0
-17.184738 27.78944 29 0
-15.184738 27.78944 28 0
-13.184738 27.78944 14 0
-11.184738 27.78944 15 0
-9.1847382 27.78944 80 0
-7.1847382 27.78944 53 0
-5.1847382 27.78944 64 0
-3.1847382 27.78944 89 0
-1.1847382 27.78944 83 0
0.81526184 27.78944 40 0
2.8152618 27.78944 28 0
4.8152618 27.78944 15 0
6.8152618 27.78944 6 0
8.8152618 27.78944 51 0
10.815262 27.78944 87 0
12.815262 27.78944 71 0
14.815262 27.78944 78 0
16.815262 27.78944 90 0
18.815262 27.78944 41 0
20.815262 27.78944 30 0
22.815262 27.78944 15 0
24.815262 27.78944 12 0
26.815262 27.78944 29 0
28.815262 27.78944 100 0
30.815262 27.78944 55 0
32.815262 27.78944 80 0
34.815262 27.78944 87 0
36.815262 27.78944 48 0
38.815262 27.78944 30 0
40.815262 27.78944 20 0
42.815262 27.78944 10 0
44.815262 27.78944 20 0
46.815262 27.78944 97 0
48.815262 27.78944 58 0
50.815262 27.78944 69 0
52.815262 27.78944 75 0
54.815262 27.78944 80 0
56.815262 27.78944 36 0
58.815262 27.78944 18 0
60.815262 27.78944 13 0
62.815262 27.78944 8 0
64.815262 27.78944 64 0
66.815262 27.78944 79 0
68.815262 27.78944 62 0
70.815262 27.78944 83 0
72.815262 27.78944 70 0
74.815262 27.78944 50 0
76.815262 27.78944 20 0
78.815262 27.78944 14 0
80.815262 27.78944 12 0
82.815262 27.78944 30 0
84.815262 27.78944 88 0
86.815262 27.78944 52 0
88.815262 27.78944 98 0
90.815262 27.78944 79 0
92.815262 27.78944 49 0
94.815262 27.78944 16 0
96.815262 27.78944 29 0
98.815262 27.78944 15 0
100.81526 27.78944 28 0
102.81526 27.78944 95 0
104.81526 27.78944 47 0
106.81526 27.78944 100 0
108.81526 27.78944 64 0
110.81526 27.78944 75 0
112.81526 27.78944 31 0
114.81526 27.78944 25 0
116.81526 27.78944 11 0
118.81526 27.78944 19 0
120.81526 27.78944 91 0
122.81526 27.78944 82 0
124.81526 27.78944 74 0
126.81526 27.78944 76 0
128.81526 27.78944 80 0
130.81526 27.78944 32 0
132.81526 27.78944 20 0
134.81526 27.78944 18 0
136.81526 27.78944 15 0
138.81526 27.78944 39 0
140.81526 27.78944 96 0
142.81526 27.78944 68 0
144.81526 27.78944 98 0
146.81526 27.78944 64 0
148.81526 27.78944 45 0
150.81526 27.78944 20 0
152.81526 27.78944 15 0
154.81526 27.78944 16 0
156.81526 27.78944 37 0
158.81526 27.78944 88 0
160.81526 27.78944 45 0
162.81526 27.78944 90 0
164.81526 27.78944 83 0
166.81526 27.78944 58 0
168.81526 27.78944 21 0
170.81526 27.78944 25 0
172.81526 27.78944 19 0
174.81526 27.78944 44 0
176.81526 27.78944 76 0
178.81526 27.78944 82 0
180.81526 27.78944 76 0
182.81526 27.78944 78 0
184.81526 27.78944 60 0
186.81526 27.78944 34 0
188.81526 27.78944 23 0
190.81526 27.78944 17 0
192.81526 27.78944 51 0
194.81526 27.78944 63 0
-167.18474 29.78944 117 0
-165.18474 29.78944 70 0
-163.18474 29.78944 73 0
-161.18474 29.78944 61 0
-159.18474 29.78944 43 0
-157.18474 29.78944 19 0
-155.18474 29.78944 16 0
-153.18474 29.78944 16 0
-151.18474 29.78944 46 0
-149.18474 29.78944 114 0
-147.18474 29.78944 70 0
-145.18474 29.78944 91 0
-143.18474 29.78944 66 0
-141.18474 29.78944 57 0
-139.18474 29.78944 23 0
-137.18474 29.78944 32 0
-135.18474 29.78944 19 0
-133.18474 29.78944 48 0
-131.18474 29.78944 73 0
-129.18474 29.78944 101 0
-127.18474 29.78944 79 0
-125.18474 29.78944 73 0
-123.18474 29.78944 51 0
-121.18474 29.78944 25 0
-119.18474 29.78944 23 0
-117.18474 29.78944 27 0
-115.18474 29.78944 51 0
-113.18474 29.78944 52 0
-111.18474 29.78944 104 0
-109.18474 29.78944 89 0
-107.18474 29.78944 83 0
-105.18474 29.78944 65 0
-103.18474 29.78944 35 0
-101.18474 29.78944 21 0
-99.184738 29.78944 15 0
-97.184738 29.78944 45 0
-95.184738 29.78944 57 0
-93.184738 29.78944 106 0
-91.184738 29.78944 67 0
-89.184738 29.78944 90 0
-87.184738 29.78944 68 0
-85.184738 29.78944 45 0
-83.184738 29.78944 27 0
-81.184738 29.78944 20 0
-79.184738 29.78944 24 0
-77.184738 29.78944 45 0
-75.184738 29.78944 109 0
-73.184738 29.78944 101 0
-71.184738 29.78944 86 0
-69.184738 29.78944 84 0
-67.184738 29.78944 43 0
-65.184738 29.78944 31 0
-63.184738 29.78944 17 0
-61.184738 29.78944 31 0
-59.184738 29.78944 43 0
-57.184738 29.78944 64 0
-55.184738 29.78944 126 0
-53.184738 29.78944 76 0
-51.184738 29.78944 99 0
-49.184738 29.78944 63 0
-47.184738 29.78944 38 0
-45.184738 29.78944 32 0
-43.184738 29.78944 21 0
-41.184738 29.78944 41 0
-39.184738 29.78944 60 0
-37.184738 29.78944 114 0
-35.184738 29.78944 99 0
-33.184738 29.78944 107 0
-31.184738 29.78944 77 0
-29.184738 29.78944 46 0
-27.184738 29.78944 24 0
-25.184738 29.78944 33 0
-23.184738 29.78944 32 0
-21.184738 29.78944 61 0
-19.184738 29.78944 83 0
-17.184738 29.78944 105 0
-15.184738 29.78944 84 0
-13.184738 29.78944 95 0
-11.184738 29.78944 37 0
-9.1847382 29.78944 33 0
-7.1847382 29.78944 18 0
-5.1847382 29.78944 38 0
-3.1847382 29.78944 44 0
-1.1847382 29.78944 59 0
0.81526184 29.78944 111 0
2.8152618 29.78944 93 0
4.8152618 29.78944 84 0
6.8152618 29.78944 58 0
8.8152618 29.78944 49 0
10.815262 29.78944 22 0
12.815262 29.78944 53 0
14.815262 29.78944 43 0
16.815262 29.78944 49 0
18.815262 29.78944 109 0
20.815262 29.78944 87 0
22.815262 29.78944 76 0
24.815262 29.78944 69 0
26.815262 29.78944 33 0
28.815262 29.78944 28 0
30.815262 29.78944 33 0
32.815262 29.78944 55 0
34.815262 29.78944 45 0
36.815262 29.78944 124 0
38.815262 29.78944 80 0
40.815262 29.78944 100 0
42.815262 29.78944 74 0
44.815262 29.78944 33 0
46.815262 29.78944 21 0
48.815262 29.78944 41 0
50.815262 29.78944 42 0
52.815262 29.78944 38 0
54.815262 29.78944 60 0
56.815262 29.78944 113 0
58.815262 29.78944 90 0
60.815262 29.78944 101 0
62.815262 29.78944 43 0
64.815262 29.78944 26 0
66.815262 29.78944 23 0
68.815262 29.78944 34 0
70.815262 29.78944 37 0
72.815262 29.78944 49 0
74.815262 29.78944 143 0
76.815262 29.78944 47 0
78.815262 29.78944 111 0
80.815262 29.78944 43 0
82.815262 29.78944 35 0
84.815262 29.78944 18 0
86.815262 29.78944 42 0
88.815262 29.78944 51 0
90.815262 29.78944 71 0
92.815262 29.78944 120 0
94.815262 29.78944 88 0
96.815262 29.78944 65 0
98.815262 29.78944 58 0
100.81526 29.78944 32 0
102.81526 29.78944 23 0
104.81526 29.78944 52 0
106.81526 29.78944 42 0
108.81526 29.78944 57 0
110.81526 29.78944 89 0
112.81526 29.78944 104 0
114.81526 29.78944 59 0
116.81526 29.78944 72 0
118.81526 29.78944 36 0
120.81526 29.78944 24 0
122.81526 29.78944 38 0
124.81526 29.78944 53 0
126.81526 29.78944 58 0
128.81526 29.78944 67 0
130.81526 29.78944 99 0
132.81526 29.78944 73 0
134.81526 29.78944 82 0
136.81526 29.78944 39 0
138.81526 29.78944 26 0
140.81526 29.78944 29 0
142.81526 29.78944 42 0
144.81526 29.78944 30 0
146.81526 29.78944 70 0
148.81526 29.78944 96 0
150.81526 29.78944 72 0
152.81526 29.78944 78 0
154.81526 29.78944 37 0
156.81526 29.78944 30 0
158.81526 29.78944 18 0
160.81526 29.78944 35 0
162.81526 29.78944 46 0
164.81526 29.78944 42 0
166.81526 29.78944 83 0
168.81526 29.78944 106 0
170.81526 29.78944 68 0
172.81526 29.78944 60 0
174.81526 29.78944 33 0
176.81526 29.78944 25 0
178.81526 29.78944 43 0
180.81526 29.78944 52 0
182.81526 29.78944 55 0
184.81526 29.78944 78 0
186.81526 29.78944 109 0
188.81526 29.78944 71 0
190.81526 29.78944 57 0
192.81526 29.78944 33 0
194.81526 29.78944 28 0
-167.18474 31.78944 33 0
-165.18474 31.78944 44 0
-163.18474 31.78944 55 0
-161.18474 31.78944 81 0
-159.18474 31.78944 102 0
-157.18474 31.78944 62 0
-155.18474 31.78944 63 0
-153.18474 31.78944 33 0
-151.18474 31.78944 21 0
-149.18474 31.78944 25 0
-147.18474 31.78944 44 0
-145.18474 31.78944 40 0
-143.18474 31.78944 77 0
-141.18474 31.78944 104 0
